# 3D point list with one line of data per point:
#   POINT3D_ID, X, Y, Z, R, G, B, ERROR, TRACK[] as (IMAGE_ID, POINT2D_IDX)
# Number of points: 284, mean track length: 7.8887200270178992
4258 -2.8677675340861786 -0.58686555379124972 -0.50452428994396892 152 125 107 0.47920840849882929 105 928 101 22 99 7
4257 -2.8270668871122604 -0.59629762264117425 -0.48198721435385627 138 116 104 0.033930466873030099 104 809 101 1
4256 -0.86415210529263187 -0.054487439911706348 -1.0511603278432367 198 180 161 1.006188824297467 103 1696 102 1691
4255 -1.5056412148584166 -0.069731322942506307 -2.1403918491024565 184 167 152 1.1389578403177156 108 1536 109 1481 102 353 99 253
4254 -3.0390427529245798 -0.5602131969064017 -0.62814947632522511 181 151 128 0.091928083802531244 104 83 105 76 102 54
4253 -1.9276698864238355 -0.42003511253450532 -5.6981457074232882 105 103 99 1.1433245662321243 103 1536 104 1497 102 1503 96 1465 95 1398 94 1480 93 1659 92 1637 91 1473 89 1088 88 1083 87 1095 85 1032 83 759 82 755 74 86 74 982 73 82 72 77 70 86 69 85 67 75 66 97 64 164 97 1341
4252 -3.3352679747225729 -0.33985180665186759 -0.80547129036412779 159 139 119 0.56566733392193291 103 354 104 366 102 317 100 231 99 906
4251 -3.2189896769323343 -0.74387931172798616 -0.8000367456181029 79 72 68 1.4066556916805963 112 1475 110 1437 109 1590 108 1443 102 845 113 834 110 1257 109 1
4250 -1.4841723011098071 -0.21037653683366925 -2.1766117338097954 102 78 55 0.34856561092403193 111 1394 110 1463 109 1408 110 1290 108 1468 105 1004 104 867 103 861 102 134 107 241 106 209
4248 -1.4310533935197516 -0.23594110691247308 -2.2153405167926281 159 142 131 1.2612380375661505 106 1787 102 1738 101 1727 100 1665 99 1742 96 1793 95 1694 94 1771 93 1981 92 1981 87 1678 86 1617 85 1451 84 1532 79 1634 78 1674 76 1825 71 2030 97 1708
4247 -0.84790674403701549 -0.0021512949593585702 -0.81274952292215097 147 137 126 0.44164749277075188 103 1742 102 1723 101 1690
4246 -1.120029945579716 -0.039901948649690287 -0.61383378304565261 171 155 137 0.74279373614494493 101 1686 100 1626 99 1660 98 1648 96 1688 95 1530 94 1612 93 1702 92 1680 91 1336 90 1140 89 872 88 837 97 1586
4245 -1.120029945579716 -0.039901948649690287 -0.61383378304565261 171 155 137 0.74279373614494493 101 1687 100 1627 99 1661 98 1649 96 1689 95 1531 94 1613 93 1703 92 1681 91 1335 90 1141 89 873 88 836 97 1587
4244 -1.3317599893237644 -0.062411137785684162 -0.71569070022993531 202 185 170 0.61858183542217227 103 1731 102 1719 101 1706 100 1624
4243 -0.8635684283744518 -0.011084405169492006 -0.64544801780508865 215 196 177 0.78474877136502297 103 1719 102 1693 101 1617
4241 -1.534785690956316 -0.1565963360000889 -2.2060018987833092 35 24 10 0.85521420219628019 104 1626 105 1756 102 1657 98 1579 96 1676 88 1455 86 1408 85 1307 84 1373 83 1430 82 1375 81 1492 80 1573 79 1499 78 1533 77 1572 76 1573 75 1863 74 1706 73 1761 72 1610 71 1724 70 1527 69 1363 68 1216 61 1455 60 1296 59 1128 58 1069 57 860 56 699 55 787 54 752 53 708 52 712 51 527 50 475 49 473 48 488 47 537 46 578 44 812 45 723 43 828 42 766 41 669 40 710 39 684 38 643 37 738 36 756 34 179 33 154 29 135 28 140 27 141 24 191 23 198 19 145 18 189 97 1573
4240 -2.3599022638979017 -0.4110504830766879 -5.9618327482998827 45 41 35 1.6328204549052592 103 1643 104 1613 106 1708 102 1641 105 1794 107 1851
4239 -0.88514647512839695 -0.014744236292228095 -0.61259515762009753 176 156 139 0.46865818922137786 103 1701 102 1611 101 1449
4238 -0.86038590107509583 -0.0057211737719674296 -0.82799430540749941 176 159 144 0.80625340868022766 103 1700 102 1609 101 1444 100 1202 99 305
4237 -1.5762057794603239 -0.10560732440872501 -1.1013691430788723 198 182 166 1.5729877654581956 105 1800 102 1602 100 1481 99 1532 97 1396
4236 -1.8957452920549498 -0.12749680202332725 -1.1634953873440081 204 185 164 0.46270087030485751 105 1762 102 1601 101 1526 99 1528
4235 -1.5789203645374268 -0.16271865215396863 -2.1518205941558515 30 28 23 0.33621379444019051 104 1584 102 1591 99 1519 98 1503 93 1688 91 1319 90 1114 89 1103 88 1109 87 784 86 768 85 783 84 775 83 804 81 142 80 906 79 135 78 128 77 159 76 147 75 135 74 165 73 144 72 142 71 162 70 139 67 137
4234 -2.5289911642239313 -0.65680953616638849 -6.1827025690890975 31 31 29 0.67085976265699221 103 1529 104 1561 105 1682 106 1652 102 1567 101 1499 100 1445 99 1484 98 1467 96 1575 94 1578 93 1760 92 1760 91 1463 90 1311 89 1360 88 1246 87 1286 86 1244 85 1179 84 1230 83 1299 82 1239 81 1343 80 1233 79 1122 78 1189 77 1245 76 1270 75 1442 75 1687 74 1395 74 1669 73 1725 72 1352 70 1275 68 993 67 1015 66 1089 65 1344 63 871 63 1301 64 1283 61 1413 62 1209 60 843 58 1015 59 1078 56 663 55 761 54 500 53 452 52 483 51 464 50 415 49 420 48 447 47 482 46 536 43 46 41 87 42 715 40 687 39 45 38 615 36 58 34 71 32 50 31 79 30 76 29 67 25 65 24 65 23 74 20 42 97 1460
4233 -4.4581197069133092 -0.54047056142691774 -1.7322525617507722 161 156 149 0.38469540015961567 108 1865 102 1519 99 1511 98 1490 96 1488 95 1416 93 1678 92 1654 91 1490 89 1287 88 1280 87 1318 85 1208 84 1252 83 1333
4232 -0.82501057278584233 -0.0057240994699037364 -0.69027189022285196 192 176 161 0.54227916394165687 103 1628 102 1453 101 965
4231 -0.87542206900562647 -0.0089325030776827904 -0.7677680713341356 171 157 144 0.37955146071712137 103 1559 102 1447 100 317
4230 -1.4520754019949151 -0.077850639771499586 -1.0573702216460703 185 169 151 0.78644441890778538 104 1524 105 1716 102 1434 101 1245 100 1185 98 943 96 329 95 342 97 954
4229 -2.7851481318300242 -0.36997232231378507 -0.43934278597398879 134 152 158 0.59185822901413632 103 1405 104 1393 102 1404 101 1395 100 1150 98 1185 96 1279 95 1220 94 979 93 1473 90 814 89 814 88 764 87 771 86 749 85 764 84 743 83 777 82 769 81 807 80 881 79 97 78 852 77 912 76 926 74 117 71 119 69 112 66 122 97 1187
4228 -3.4243197066252011 -0.47555672644437624 -0.92705907416837929 140 153 161 0.44109615480324615 104 1505 105 1612 102 1403 101 1394 100 1349 99 1393 96 1278 95 1219 94 1312 93 1472 89 813 88 763 87 770 86 748 84 742 83 776 81 806 80 880 78 851 76 925 75 93 74 116 73 112 97 1186
4227 -2.5921164254708073 -0.76835113693099921 -6.2917474664595883 61 59 52 0.43813124749563837 103 1373 104 1363 105 1461 106 1441 102 1377 101 1361 100 1309 99 1345 98 1344 96 1452 95 1385 94 1469 93 1650 92 1627 91 1252 90 1064 89 1060 88 1064 87 1073 86 1035 85 1010 84 1024 83 1116 82 1061 81 1131 80 1218 79 1123 78 1188 77 1244 76 1269 71 1393 70 1274 69 1121 68 671 67 694 66 757 65 906 64 893 63 870 62 823 61 962 58 708 97 1325
4226 -2.2499608296111449 -0.65607004916408651 -5.9627627784613431 54 47 42 0.22825621100916943 103 1371 106 1576 102 1375 69 48 54 37
4225 -0.8142342603903181 -0.00094835548076677547 -0.75040289583480568 191 174 159 0.73973707636320751 103 1624 102 1300 101 360
4224 -0.82904114347500479 -0.001378567235343447 -0.77615632481091923 164 149 133 1.0449895253426775 103 1560 102 1295 101 962
4223 -1.1414341911280128 -0.043530277342310637 -0.57979573632140013 163 146 131 0.22399793075316757 103 1456 102 1283 101 950
4222 -1.1341154760881698 -0.04215033290559192 -0.63110411415617629 198 182 165 0.45838856222574292 103 1447 102 1281 101 947
4221 -3.5966933650619448 -0.47476938585796569 -1.0607363658558784 116 125 132 0.61539637533099822 109 1616 102 1214 99 1217 98 863 96 902 95 884 92 1040 89 167 88 124 84 142 80 102
4219 -1.0987338895209597 -0.039325698417126603 -0.61425055193700573 192 175 160 0.0038727175761937302 103 1454 102 996
4218 -2.6141384298823769 -0.1949278367695817 -0.78312873124831994 199 181 164 1.7544543809086477 104 941 102 973 101 929
4217 -2.8116024169283431 -0.41142904627929039 -0.45319627840359966 133 154 163 1.3750742355988965 104 1195 102 913 101 146 100 121 99 102 96 100 93 138 92 143 97 102
4216 -2.0670981548321965 -0.44220580586715846 -5.6514531896469666 124 117 116 0.41193268215759898 104 860 105 980 106 957 102 892 107 1012 108 1068 101 836
4214 -2.7981358278400283 -0.48020390278375324 -0.46952831169886511 159 143 122 0.43303742775400333 104 1179 102 867 101 819 100 809 99 830 96 825 95 56 94 77 93 83 91 88 90 92 88 75 97 58 97 805
4213 -4.912295940408276 -0.96085649173241028 -2.1214759962214251 251 249 245 1.1120229202617751 108 69 102 866 101 817 99 826 98 794 96 1239 95 1173 94 1268 93 1429 92 1393 91 1268 88 1239 91 1469 86 1236 85 1173 84 1223 79 740 78 815 77 864 76 877 75 982 74 1665 66 63 88 65 91 79 86 31 62 79 58 81 55 27 52 26 50 29 49 38 48 39 47 36 46 32 44 54 45 32 43 52 42 53 41 56 40 88 39 53 38 72 37 81 36 65 35 71 34 80 33 73 32 57 31 58 30 52 29 82 28 90 27 91 26 96 25 73 24 76 23 86 22 71 21 50 20 49 19 58 18 78 17 58 16 86 15 87 14 103 13 58 72 1719 73 1899 12 60 11 86 10 43 9 54 6 79 7 48 4 36 5 28 3 75 2 77 1 68 97 1143 71 1831
4212 -1.4352076888242149 -0.35333145445770137 -2.1965282408951685 152 139 126 0.10800298752416702 104 812 102 850 100 31
4211 -0.8585924901875569 -0.010198991575415045 -0.62765790362834217 178 158 139 0.28929747606351108 103 1351 102 499
4210 -1.0861574493453079 -0.038721596289136934 -0.59135755400978562 165 148 135 0.22768952446963742 103 968 102 402
4209 -1.4079001869784309 -0.074886430784869368 -0.58117207129336945 168 151 136 0.1604616033851155 103 950 102 383
4208 -1.359058615045045 -0.070859641121856984 -2.3936498374554414 195 178 160 0.60335568382094285 103 928 104 392 102 350 105 1061 106 440
4207 -2.8828439331597724 -0.27561842953883381 -0.4774903986157602 173 144 122 0.21447241348154755 104 929 105 1076 102 330
4206 -3.8833413158082899 -0.35573389063150773 -1.3484550941810467 193 179 168 0.38706606786348519 103 350 104 359 106 1067 102 316
4205 -2.6115461920299627 -0.21170659130820832 -1.6355969216833035 177 163 150 0.65715110900507057 106 1065 108 1529 102 314 109 1479
4204 -2.8251686267623408 -0.34524852270339795 -0.46972378472697873 168 146 124 0.40491253356504703 104 908 105 1026 102 281 101 230 100 192 103 897
4203 -2.9138235072583818 -0.35492611327787171 -0.51572255905883513 182 150 125 0.17221347856539601 103 293 104 301 102 269 105 313
4202 -2.8868557633236369 -0.36612582782189906 -0.53201224220955734 180 148 121 0.24010150868423782 104 300 102 266 101 217
4201 -4.1466981598774364 -0.54587111807365118 -1.5360977671688125 157 156 149 0.27056215006104817 104 269 106 246 102 242 95 176 97 162
4200 -1.4109792860172026 -0.17708540409510434 -2.2698921771158513 42 19 7 0.36102841064478119 103 225 110 1302 102 196
4199 -2.810843280384776 -0.37258366180359853 -0.47052428601054974 171 145 122 0.34524815695151129 105 998 102 174 100 191
4198 -2.8421473715453454 -0.37614245963721382 -0.50108832248067237 177 147 123 0.78046144514032734 104 202 102 170 103 205 100 187 99 158
4197 -1.408280067937407 -0.24103446872595974 -2.2613787375723708 156 144 132 0.30916252462808719 107 1018 108 1049 102 131 101 109
4196 -2.4650226555570272 -0.42169318565269387 -6.1018500021774207 141 138 137 0.30262254839765468 104 135 105 207 107 232 102 127 106 198
4195 -2.4640704665453876 -0.42161066602522224 -6.0988604114307359 141 138 137 0.2270775346388266 104 136 105 206 106 197 107 233 102 126 108 251 101 103 100 98
4194 -2.8285395246703402 -0.43452251814905424 -0.48051021950752554 175 145 122 0.39821893901682037 104 129 102 114 101 87 100 118 99 99
4193 -1.5222470548470273 -0.277200475884674 -2.1251306968613553 93 80 70 0.10808166211730129 105 956 102 78 101 61
4192 -4.0134430018517042 -1.1309249990504691 -10.758265900329885 26 26 23 0.094291430027716852 134 25 102 73
4190 -2.1521291707184407 -0.47536253944888329 -5.7193171646432992 59 50 47 0.23419286827083752 107 150 108 166 102 69
4189 -1.9547742456225643 -0.44742173992403422 -5.7399597893712873 111 106 101 0.78113906002306044 106 955 102 65 105 977 101 830 99 59 96 72 94 936 89 125 97 811
4188 -2.8388433681444836 -0.46756959215633198 -0.46637007814151304 170 149 129 0.28258072702670051 103 82 104 841 102 63 101 81 100 77
4187 -2.8169898554629964 -0.50453507832802813 -0.46695077939199742 169 147 129 0.34702179868049593 103 829 104 822 102 61 101 51 100 42 99 23 98 54 97 56
4186 -2.8839820024066602 -0.51385925122128928 -0.50141331360331365 178 148 124 0.57264803605726877 104 89 105 952 102 60 100 41
4185 -2.9374905596432592 -0.54095995833051613 -0.50578392667501504 177 148 124 0.86090623212803641 103 28 104 821 102 59 101 50 100 40 98 52
4184 -2.8965443307113277 -0.51231309007615955 -0.53484009279737599 181 149 124 0.26143499354702593 106 930 102 57 101 48
4183 -3.7977969783234165 -0.70361367299658195 -1.1783777192425327 149 130 116 0.62059275984361506 105 950 106 47 107 57 102 49 108 76
4181 -1.9720321231921547 -0.69687947154446617 -5.7758518324667429 136 134 126 0.4981586002123688 105 938 106 31 102 11 98 15 97 19
4180 -2.7921466559213157 -0.57544961506348691 -0.46900841279282163 144 121 102 0.59756535480274153 103 7 104 12 102 10 101 2 100 16
4179 -2.821064344151103 -0.59754524666048026 -0.46484542468632617 129 110 99 0.39522894208506942 103 8 104 1 102 9 100 14
4178 -2.9923511424576188 -0.62274525713559203 -0.55078243894002843 145 121 106 1.168034418885213 105 924 106 892 102 2 101 18 100 10
4177 -3.2213749251269732 -0.74973547427799947 -0.86214116879942249 213 215 218 0.54642765810166682 112 1474 102 0 100 0
4174 -1.4726929649199609 -0.14139581316782332 -2.3033481803905151 22 14 10 1.5193030149151738 104 1702 110 1773 106 1790 105 1857 103 1740 102 1742 101 1732 100 1655 99 1732 98 1716 96 1782 97 1690
4173 -1.2717886057621481 -0.064287859091351193 -2.2337076020377529 195 178 160 0.28011670915675285 104 1589 103 1550 102 1526
4172 -3.3171264789579431 -0.61226621931527159 -0.86570860060803578 169 141 121 0.71682937277010439 110 914 105 56 104 73 103 68 114 833 115 778 113 848 109 67 108 87 107 73 102 51 101 39
4171 -3.3876165058709882 -0.51189094480731701 -0.92004185455656484 104 114 120 2.3429088946957073 107 1417 110 1461 106 1293 105 1283 103 844 116 1198 115 1450 114 1674 113 1313 112 1318 111 1215 110 952 111 880 107 190 106 151 105 154 102 879 101 850 100 830 98 83 97 94
4170 -1.0284770047255727 -0.034878050038481476 -0.7192567124788688 168 152 133 0.54882949698561778 104 1717 103 1748 102 1746
4168 -1.3280146728066942 -0.062284963216366458 -0.71502980548994799 203 186 171 0.78518866975256019 104 1705 103 1730 102 1718 101 1705 100 1625
4166 -2.0797231436532071 -0.66816848473254598 -5.8261320350545791 50 48 43 0.55870872314884046 104 1674 105 1810 106 1749 103 1704 107 1914 108 1948 102 1708 101 1676 100 1610 99 1684 98 1666 96 1752 95 1660 94 1732 93 1944 92 1941 91 1713 90 1429 89 1517 88 1507 87 1579 86 1553 85 1362 84 1434 83 1488 82 1436 81 1548 80 1614 79 1545 78 1600 77 1613 76 1737 75 1932 74 1938 73 2009 72 1791 70 1713 69 1503 68 1342 67 1351 66 1403 65 1717 64 1681 63 1689 62 1566 61 1941 60 1681 59 1391 58 1341 57 1063 56 881 55 1026 54 954 53 882 52 890 51 874 50 680 49 738 48 739 47 793 46 927 44 1274 45 1148 43 1331 42 1176 41 1091 40 1145 39 1126 38 1017 37 1159 36 1154 35 1120 34 1474 32 1127 31 1106 30 997 29 986 28 910 27 980 26 1001 25 1021 24 1082 23 1245 22 1241 21 1308 20 1245 19 1302 18 1206 17 1149 16 817 18 861 15 729 14 756 13 733 12 791 11 707 10 607 9 666 8 615 6 649 7 642 4 568 5 575 3 509 2 42 1 58 97 1662
4165 -1.0600746085430424 -0.032841204962152606 -0.70212720445159504 174 156 136 2.0578576077324313 104 1683 103 1699 102 1605 101 1536 100 1396
4164 -1.1496822510735285 -0.042571077745740461 -0.8207417012643321 198 179 158 0.93981815935615654 104 1681 103 1697 102 1666 101 1611 100 1485 99 1534 98 1393 94 1040
4162 -1.5798596683524397 -0.098595415021768607 -0.588770206307764 173 156 146 1.7357814025082154 104 1635 103 1661 98 1389
4161 -2.0245768335130134 -0.57229355774060142 -5.835994408648209 139 131 125 0.64262323386134157 104 1608 105 1738 106 1699 103 1636 107 1843 102 1633 101 1648 100 1570 99 1624 98 1628 96 1641 95 1571 94 1635 93 1840 92 1852 91 1659 97 1545 97 1618
4160 -1.4030183178581197 -0.31685034397137568 -2.2626150976438284 128 60 36 0.98355552517641309 104 1607 108 1947 103 1633 101 1642 100 1569 99 1568
4159 -2.3459921236575143 -0.64058795003849989 -6.0315097235626478 51 46 44 0.40550012779154265 104 1560 105 1681 106 1651 107 1794 103 1582 102 1566 101 1577 82 1238 77 1429 19 48
4158 -2.3513956840423793 -0.64870077738266463 -6.0561504820628276 51 46 44 0.86432844877109971 104 1559 105 1680 106 1650 107 1793 103 1581 102 1565 101 1576 100 1444 99 1483 98 1341 100 1322 95 1383 94 1577 91 1586 90 1222 89 1249 88 1063 88 1245 86 1038 86 1243 85 1017 82 1237 80 1232 79 1120 78 1187 77 1428 74 1394 73 1016 72 926 69 769 68 670 67 693 66 756 65 905 63 869 62 822 61 963 58 707 57 566 55 22 53 451 51 18 50 25 46 23 43 45 41 48 38 55 34 70 32 48 19 47 97 1459
4157 -1.0154270113772057 -0.026138829584041134 -1.6138839268767882 175 157 137 0.89222062212254516 104 1523 103 1554 102 1533 101 1432 100 1392 99 1417
4156 -0.8560285137458471 -0.0043672401801739371 -0.82882675748309254 175 163 151 0.58083621285488385 104 1602 103 1468 102 1293 101 355
4155 -0.98122228488560315 -0.023233075564111017 -0.73927224219026511 202 186 166 0.45883564462130544 104 1599 103 1461 102 1285 101 341
4154 -1.0914558034618074 -0.031241847437487532 -1.714155577879714 169 152 134 0.71350854335506819 104 1432 103 1441 102 1433
4153 -1.2915428186271352 -0.059632967857319079 -2.047832002228815 199 182 167 0.30508246622114982 106 1682 101 1234
4152 -1.1506991160494242 -0.090123474761610922 -2.3931633920876019 161 125 97 0.5396344044342859 104 1406 103 1423 102 1421 101 1416 100 1157 99 1229 98 1196 96 1287 95 1229 94 998 92 1057 91 969 90 843 88 224 86 163 85 155 84 184 97 1195
4151 -1.4057276634160629 -0.31781262713205649 -2.2838188149473084 90 43 27 0.60556131976035676 104 1364 105 1593 103 1374
4150 -2.42485354101564 -0.73618621357088776 -6.0320156537496965 60 54 49 0.64373318930513423 104 1362 105 1459 106 1572 107 1703 103 1372 102 1376 101 1360 100 1308 99 1344 98 1342 96 1451 95 1384 94 1468 93 1649 92 1626 91 1462 90 1211 89 1059 89 1243 88 1237 87 1072 86 1034 85 1009 84 1023 83 1115 82 1060 81 1130 80 1217 79 1121 78 1186 77 1243 76 1268 74 1393 73 1458 71 1392 69 1120 63 1288 64 1282 62 1202 80 1426 61 1411 60 1258 58 1014 59 1077 57 818 56 662 55 749 48 446 47 480 46 534 44 763 45 678 41 624 43 774 42 714 40 676 39 640 38 614 36 711 37 679 35 771 34 875 32 49 31 51 30 48 29 50 28 54 27 75 26 79 25 64 24 64 23 72 22 61 21 41 20 40 19 46 18 68 17 53 16 74 15 75 97 1324
4149 -2.2486527762259483 -0.65465858677323641 -5.9629991101118653 51 43 37 0.31142418861909216 106 1575 107 1710 108 1762 103 1370 102 1374 101 1359 100 1321 99 1359 98 1340 96 1450 95 1382 94 1467 93 1410 93 1647 92 1379 91 1251 90 1063 89 1070 88 1062 87 736 86 710 85 717 84 693 83 733 82 734 81 778 80 32 79 746 78 821 77 872 76 40 75 37 74 45 73 45 72 42 71 48 70 53 69 47 68 55 67 49 66 50 65 101 64 103 63 79 62 74 61 96 60 99 59 82 58 72 57 41 56 35 54 36 97 1323
4148 -0.89784823212675169 -0.0095659729802982044 -0.82049760358889301 147 133 117 0.28446988972087811 104 1545 103 1281 101 956 100 307
4147 -1.117182348580902 -0.039744137794507493 -0.62951298502214115 158 141 125 0.67225400006143232 104 1537 103 1272 102 991
4146 -1.1162450849763312 -0.041055405094524551 -0.63326403845046364 168 151 136 0.098797011237813315 104 1443 103 1270
4145 -1.1162450849763312 -0.041055405094524551 -0.63326403845046364 168 151 136 0.098797011237813315 104 1442 103 1269
4144 -1.1553469228551472 -0.04366665659455668 -0.67733745666717438 202 186 168 0.64259750158865969 104 1530 103 1266 102 988 101 336
4143 -1.075113665930107 -0.033811831451896798 -0.81504650452211824 194 177 157 1.2842291239437198 104 1529 103 1264 102 384 101 335
4142 -1.0091883188650608 -0.018940594062188586 -1.5932035405643312 201 183 165 0.54082751158682574 104 1434 103 1252 102 983
4141 -1.0731161770547508 -0.035254675381671929 -1.7097392696264584 190 178 166 0.47212869160864912 104 1250 103 1251 102 979 100 907
4140 -7.8166864476098024 -1.2242525563959366 -4.3319978002782458 157 135 112 0.47405731607340318 123 1240 103 1188 94 951 91 915 88 760 84 719 83 769 81 803 79 778 77 888 76 919 75 88 72 103 69 105
4139 -2.0645853112551569 -0.46631740583520404 -5.7457634685274908 47 35 33 0.32497745731825184 104 1196 106 1287 103 1166
4138 -3.3687017835975297 -0.66674295047355947 -0.88029642994149138 160 141 128 0.54110992174292516 104 1175 105 1261 103 1155 101 818 100 796 98 780 94 30 92 53 91 84 90 61 88 41 86 37
4137 -1.3128870988979893 -0.06202172160490943 -0.69904163386457352 191 174 159 0.3333993396933958 104 1255 103 948 102 377
4136 -1.3128870988979893 -0.06202172160490943 -0.69904163386457352 191 174 159 0.3333993396933958 104 1254 103 947 102 378
4135 -2.5106273650784554 -0.19948954861679272 -0.76103955502341092 161 143 124 0.16716426076625315 104 943 105 1079 103 935
4134 -2.5004783057538367 -0.19881152091263257 -0.76053852151311419 161 143 124 0.21077341770503613 104 942 105 1078 106 1080 103 934
4133 -1.1658472870007224 -0.06280915717333635 -2.3466266205665209 196 161 134 0.52109757465458639 105 1052 103 926 102 966 101 300 100 265 99 242
4132 -1.0987858454535133 -0.049632055636426621 -2.1989376682682793 198 164 129 0.48119618282105664 104 1242 103 925 102 343 101 299
4131 -2.835660612862835 -0.27083109671979688 -0.47259585213782712 169 144 122 0.33386773875673575 104 930 105 1077 103 922 102 961 101 910 100 245 99 213 98 244 96 295 95 260 94 282
4130 -1.7964237387521116 -0.13027938120965016 -2.3416975433790519 61 55 52 0.44104520859968432 104 395 105 426 103 914 102 304
4129 -1.7850384582523227 -0.16663019708874918 -2.3303762304586289 37 31 28 0.29662742734932501 106 1028 107 1444 103 912 108 1506
4128 -2.8153354101452703 -0.34418506080524403 -0.47089222505559969 170 144 123 0.25312272139519737 104 909 105 1027 103 898
4127 -1.7662063507066033 -0.2668133140274665 -3.7675991969923968 28 19 16 0.052467675588593998 106 986 103 857
4126 -1.4427269090678734 -0.21974308774565152 -3.4320067219880523 107 67 36 0.16336092830605789 105 1000 106 978 103 851 94 163 97 125
4124 -2.8276524662603375 -0.46501706612304244 -0.48056126053493536 171 146 120 0.4838808796027923 104 839 105 954 103 828 102 111 99 45 96 98
4123 -2.2291036514963389 -0.65231879703834472 -5.9534096315444183 47 39 33 0.1228464857078936 108 1453 109 1390 103 820 101 815
4122 -2.2291036514963389 -0.65231879703834472 -5.9534096315444183 47 39 33 0.1228464857078936 108 1452 109 1389 103 819 101 814
4121 -1.9300971153143578 -0.61952191550638047 -5.7270652674309455 39 33 32 0.24324900609130615 104 824 105 940 106 905 103 817 102 860 101 810 100 789 99 803 98 32 96 813 95 816 94 54 93 1028 92 78 91 65 90 48 89 82 86 23 85 24 84 28 83 30 97 791
4120 -1.9300971153143578 -0.61952191550638047 -5.7270652674309455 39 33 32 0.24324900609130615 104 823 105 939 106 906 103 816 102 859 101 809 100 788 99 802 98 33 96 812 95 815 94 55 93 1027 92 79 91 64 90 49 89 81 86 22 85 23 84 27 83 29 97 792
4119 -1.0348177747000313 -0.01652622939297271 -1.124623717814879 164 151 140 0.52458162976801792 104 438 103 408
4118 -1.3291372671801154 -0.06261026595139875 -0.68782352260341939 205 188 170 0.40599654341161368 104 958 103 405 102 381
4117 -1.0911522309835704 -0.023911017031099289 -1.132650130666659 152 136 122 0.19468755779466237 104 953 103 399 102 371
4116 -2.9970498247794541 -0.26634922661201449 -0.62495009086712905 103 71 48 0.074684444821613183 104 405 105 1073 103 391
4115 -1.2243437956319023 -0.068889715613732305 -2.3503848642839049 77 41 11 0.11120906196869236 105 415 103 378 101 303
4114 -5.7069607510953837 -0.55068042278789264 -3.8382004354958421 194 182 171 0.89517995203529321 138 879 103 349 134 205 137 850
4113 -1.4411512654419927 -0.14772831950141374 -2.2504730937526261 30 18 8 0.10621419088016779 109 1096 103 334
4112 -2.9254352227140861 -0.35593057818129265 -0.52157192233064942 180 146 121 0.28784553198505025 106 1009 103 292 102 267 100 188
4111 -3.0659965586268494 -0.34113634645172369 -0.63093187068541301 176 147 125 0.24568875386572739 104 285 109 1122 103 271 108 1181 102 251
4110 -13.489939880486476 -1.6127868881389755 -12.405973940344806 156 143 138 0.36586669257810756 104 254 105 235 107 349 109 1080 110 281 112 252 115 204 117 191 121 173 122 160 125 147 126 163 130 193 133 190 141 186 142 202 103 241 101 193 99 136 85 166 77 168 146 164 148 195 150 885 151 153 70 148 65 168 58 136 152 174 153 174 155 873 156 829 159 180 160 152 163 182 164 187 165 159 167 165
4109 -1.4695734960406499 -0.21172942887508672 -3.4501315569007507 110 72 37 0.19812075586262792 104 212 105 198 103 222 102 190
4108 -2.8279943697705314 -0.40505034137261442 -0.48185551090664108 176 143 121 0.16391850922625356 105 996 103 207 99 101
4107 -1.4420948765064008 -0.24162698040283656 -3.4442450097852015 167 124 88 0.26123821424705618 105 120 106 187 103 137 102 121
4106 -3.1024125828131521 -0.53481680929952857 -0.67427725109867875 175 147 121 0.1646664715545563 108 1046 103 75 109 1013
4105 -2.076092678746734 -0.60218861341983654 -5.8306302205827016 39 28 20 0.31630418467111687 105 81 106 73 107 94 103 41
4104 -2.9668164571959657 -0.56759051809672434 -0.57331564395650347 176 144 118 0.38600704366161775 105 32 106 903 103 23 102 28 101 17
4103 -3.1203128224527554 -0.59597069104019595 -0.68563879588399435 150 120 96 0.35881800760557947 106 900 103 19 102 852 100 797 96 52 95 53 92 92 91 85
4102 -3.1918336023235199 -0.640536581898841 -0.73370407917351388 174 145 123 0.056685900433546502 109 968 103 18
4100 -2.3597969956513021 -0.16544500866458614 -0.81216734465055396 207 191 176 2.2743134752727361 105 1859 106 1796 104 1713 102 1743
4099 -1.4056069560427293 -0.33033984705960118 -2.24920983833292 155 100 15 1.7200800149822273 108 1978 104 1685 102 1726 97 1683
4098 -1.1065702091440368 -0.037215276793853162 -0.77896720667365305 164 145 125 1.0472494257359142 105 1860 104 1682 103 1698 102 1667 101 1535 102 1604 95 348
4097 -3.0020511939996419 -0.57788539721298138 -0.59817946175904491 160 125 100 1.3209553139974861 105 1826 106 1765 104 1673 103 1703 102 1707 101 1694 98 1665 96 1754 95 1661 97 1661
4096 -1.0703918808294113 -0.032217642878840422 -0.75182764548752801 176 158 140 1.7495958358883914 105 1839 104 1670 103 1667
4095 -1.0996256687069506 -0.035694698165085241 -0.79673123463534434 158 139 123 0.6332041060503304 105 1851 104 1669 103 1666 102 1536 101 1442 98 279
4094 -1.2115945344401375 -0.047734716955515226 -0.71315487565014746 158 142 124 1.4885920423949996 105 1805 104 1665
4093 -1.0976225496554914 -0.035444156259046337 -0.82978292255161168 180 161 140 1.2263117074402106 105 1836 104 1664 103 1664 101 1610
4092 -1.1537563845004315 -0.039338956460581206 -0.85265484137560543 201 182 161 0.98394638213779473 105 1835 104 1663 103 1663
4091 -2.2894485330907601 -0.57395256556149499 -6.0728709234572742 145 135 129 1.3913484182480211 106 1740 104 1645 103 1682 102 1682 101 1679 100 1571 99 1625 98 1632 96 1718 95 1635 94 1700 93 1905 92 1917 91 1742 90 1431 89 1518 88 1508 87 1582 86 1555 85 1407 84 1481 83 1532 82 1483 81 1549 80 1621 79 1546 78 1601 77 1615 76 1738 75 1933 74 1939 73 2011 72 1793 70 1715 69 1504 68 1346 67 1355 66 1472 65 1818 64 1791 63 1693 62 1572 61 1942 60 1682 59 1392 58 1342 57 1064 55 1033 54 961 53 816 52 817 51 886 49 739 48 740 46 929 44 1290 45 1162 97 1664
4090 -1.1256043778807776 -0.040830136305175825 -0.7531934338080708 173 155 135 0.34038312657992592 105 1806 104 1637 103 1556 102 1437 99 293
4089 -0.93213176607035875 -0.015008883404370172 -0.80928146300540371 184 170 157 0.54632457309541149 105 1825 104 1601 103 1458 102 1290
4088 -0.93213176607035875 -0.015008883404370172 -0.80928146300540371 184 170 157 0.54632457309541149 105 1824 104 1600 103 1457 102 1289
4087 -1.2045802416771951 -0.047472250514181739 -2.318033705053705 184 166 148 1.5115723594473633 105 1761 104 1596 103 1615
4086 -2.9301469587814903 -0.27015311464130465 -0.5419422555857929 156 125 102 0.37003391946844771 106 1720 104 1595 103 1614
4085 -2.6340514809853919 -0.2509367968004651 -3.0675577466653436 0 0 0 0.87060872155860569 115 1796 118 1490
4083 -0.95280073996003689 -0.019557065211167703 -0.79926020141224496 192 177 159 0.47025997505152878 105 1770 104 1541 103 1459 102 993
4082 -1.2130290883922799 -0.039949733321117509 -1.211112949975423 158 144 130 0.36695430967374726 105 1719 104 1525 103 1445 102 1435 101 1247 100 1190 99 949 98 272
4081 -2.968758637210954 -0.25095981268077899 -0.79440104577314896 186 166 148 0.33293496281198703 104 1521 103 1552 102 1529 99 1413 98 1385
4080 -1.1838517430312812 -0.11566052169878746 -2.4382789899644539 172 135 103 1.2945039352617833 105 1627 104 1517 103 1424 100 1367 99 1396 98 1195 96 1288 95 1228 94 997 92 1056 91 251 89 205 97 1194
4079 -1.0264966061347696 -0.028421723761222685 -0.74455859424057891 162 148 134 0.46523900970698823 105 1723 104 1441 103 958 102 397
4078 -1.098080351478514 -0.041174801853314978 -1.8387909258729389 196 180 166 0.4913248944442819 105 1541 104 1427 103 1249
4077 -1.4272292004124776 -0.1425520764540989 -2.271642225275698 66 47 37 0.37293997889703395 106 1611 104 1409 102 1422 96 1292 95 1232 81 139
4076 -1.2814165609008805 -0.13595579719733458 -2.573557005363952 185 149 117 0.34863649737414132 105 1628 106 1610 104 1408 103 1407
4075 -3.5189048778180663 -0.40568234767881584 -1.0034541285330212 37 50 60 0.58258429591613858 105 1526 106 1496 104 1405 92 1045 89 232 86 779 85 793 83 810 81 837 75 151 97 902
4073 -1.9660413033407826 -0.6323936354312254 -5.7512857636811789 146 137 128 0.54394509902981369 105 1592 106 1440 107 1701 104 1360 103 1369 102 1373 101 1357 99 1153 98 787 96 1230 95 1165 95 1380 94 914 93 1408 92 959 91 885 89 1058 88 719 86 24 82 38 70 52 68 669 97 1134
4072 -0.93780567491876876 -0.015412223195138609 -0.80787128797897445 172 156 138 0.0035821550493804312 105 1657 104 1276
4071 -1.0904086418134395 -0.033649098598692105 -0.80159280161264013 164 144 126 0.37825101176907938 105 1644 104 1258 103 415 102 385
4070 -2.453025057204242 -0.22396873184272167 -2.8605196313634811 23 17 10 0.60559699454946725 105 1322 107 1637 108 1798 104 1234 103 1234 102 1259 101 1223 100 1163 99 898 98 894 96 938 95 908 94 1005 93 1115 92 1061 91 260 90 192 89 288 97 896
4069 -1.8823123227325487 -0.14851920317702264 -2.41841038286038 64 62 57 0.45340481269527522 105 1336 106 1506 104 1233 105 1535
4068 -1.5564473344786574 -0.13049544758238746 -2.1115967100012045 31 22 21 1.0032594911506412 108 1685 104 1231 103 1229
4067 -1.4242865303391878 -0.12114860575928119 -2.5706789659681455 93 77 63 0.70968113685302814 105 1312 106 1499 104 1226 99 1230 96 1290 90 1111 89 281 89 1133 87 1129 85 782 97 890
4066 -0.94764791042845931 -0.018366786598944643 -0.77262085998390817 162 145 132 0.55002853587001777 105 1572 104 1001
4065 -1.1756015405540214 -0.046409580628527188 -0.68331855412023523 162 146 127 0.28171456305334908 105 1363 104 966
4064 -1.2303225450265021 -0.050690618412284574 -0.88671880051054464 194 177 159 0.17316675257024447 105 1355 104 956 103 404
4063 -1.2363823963640297 -0.045935948533808488 -1.0924893416950825 189 176 157 0.30344013471012637 105 1348 104 951 103 403
4062 -2.8626368734129084 -0.26274749748944776 -0.51841257138860863 173 148 128 0.49461720448805491 105 1339 106 1339 104 947 103 920 102 960 101 909 100 897 99 927 98 243 96 294 95 318 94 365 91 341 87 232 86 243 97 303
4061 -2.7837304038698352 -0.2300945366346662 -0.55493855807462389 176 155 133 1.8950507278874702 105 1075 106 1345 104 946 103 939 100 283
4060 -2.8589485078961649 -0.24765916900384441 -0.57330423328697966 210 185 162 0.44251634907549209 105 1074 106 1071 104 945 103 938 102 974
4059 -1.565855432112953 -0.10543426568121568 -2.5772765861738822 69 39 13 0.23577831517238171 105 1065 106 1058 104 933 107 1115 103 381 102 299 101 305 100 270 99 245 98 230 97 286
4058 -1.1810488330487903 -0.06272694820648235 -2.3049184778656002 182 152 126 0.36568178751187264 105 1053 104 931 103 374 102 344
4057 -1.5495895989447994 -0.17895021974813652 -2.7743294941082381 162 138 117 0.28808020031351872 105 1034 106 1018 104 889 103 884 102 195 101 860
4056 -3.4652335733129367 -0.53674349464478366 -0.97493820393909902 120 129 134 0.50538378951477381 106 972 104 853 103 110 102 93 101 128
4055 -2.076096365085677 -0.49931859852819749 -5.7917985514922261 36 19 16 1.3142955107631926 106 124 108 115 104 844 103 834 88 95 86 62
4054 -1.9482424385096024 -0.48505603240391859 -5.7405327743251773 130 123 117 0.70791135469358768 106 954 107 144 104 843 103 830 102 868 100 44 95 830 94 935 93 107 92 979 91 902 89 83 87 58 86 61
4053 -1.3945553120894836 -0.30438176122411537 -2.2814151919442192 250 249 242 1.1247706799729253 109 37 103 821
4052 -2.0623091261492554 -0.6065662205150002 -5.8445562519255603 141 131 123 0.25535262774278189 106 932 107 989 104 826 103 40 102 34 101 27 99 26 96 28 90 79 97 37
4051 -2.0617759175779362 -0.60656423009327098 -5.8433039352768263 141 131 123 0.24296214309586836 106 933 107 990 104 825 101 28 99 25 96 29 90 78 97 38
4050 -2.8860380203140776 -0.52857289158980314 -0.5221002256017393 173 143 121 0.80857560272354823 105 936 106 904 104 820 100 39 101 47 95 55
4049 -3.4809154949393486 -0.71352587823953417 -0.69417821591520146 170 141 119 1.1013958027656965 105 1262 111 1191 104 817
4048 -1.9692818886426224 -0.71929144265317402 -5.7475326046572324 106 101 96 0.37787844944863919 105 929 106 907 107 961 104 810 103 808 101 5 100 3 99 11 98 14 96 13 95 21 94 25 92 42 97 18
4047 -2.9509608919099488 -0.62959379191238352 -0.5713460136241415 160 150 140 0.24614538430353608 105 922 106 1277 104 808 103 806 102 846 101 796 100 781 99 790 96 19 95 26 94 32 93 45 92 54 91 42 90 25 89 20 84 16 80 6 97 7
4046 -2.9488071253758688 -0.62906851797385066 -0.57145660856785208 160 150 140 0.20752995507118402 105 921 106 1276 104 807 103 807 102 847 101 797 100 780 99 791 95 27 94 33 92 55 91 43 97 8
4045 -1.0668715074351938 -0.032488932081287954 -0.76289201125447392 194 179 161 0.27839177849222774 105 1367 104 456 103 419
4044 -1.3369300027346269 -0.064790202619358195 -0.69894314671007407 212 195 183 1.2867803463278904 105 1357 104 437 102 379
4043 -1.4819710946959537 -0.074670948306321608 -2.0440386152073664 176 158 140 0.38349162195641445 109 1482 104 417
4042 -2.8796142186803411 -0.26280964044878813 -0.50170820555796658 153 126 106 0.17031578017346699 106 437 104 409 103 368 102 325 100 285
4041 -2.8654202328540128 -0.2529815799208287 -0.50934605137132316 112 91 68 0.21971710564232769 106 438 104 408 103 392 101 312
4040 -1.1906764375773939 -0.062499221304917446 -2.31096900953915 195 163 138 0.13658378799031959 105 436 104 389 103 375
4039 -2.9418670310035693 -0.28271347413321463 -0.53181899166358526 178 146 121 0.18168007776087275 106 1072 104 379 103 366 102 323
4038 -2.9532094230973867 -0.31384013365514513 -0.54914701330001592 176 146 122 0.28410874796198915 106 1048 104 377 107 1109 102 322
4037 -3.0052844183025895 -0.31946429040446189 -0.59887452364840776 178 149 123 0.60263544035885042 108 1185 104 371 107 1105
4036 -3.0052844183025895 -0.31946429040446189 -0.59887452364840776 178 149 123 0.60263544035885042 107 1104 108 1184 104 370
4035 -3.1277509487490573 -0.30206075774722957 -0.6782293781028047 179 147 121 0.55606119832179102 105 392 107 448 104 369
4034 -3.4287471911666705 -0.35081138530544737 -0.94190180386961808 136 148 152 0.94957168147499826 106 1045 107 1102 104 362
4033 -1.2127110572583422 -0.12712028022739702 -2.5042162361527196 171 142 122 0.32368902767520003 105 323 104 330 102 192
4032 -2.9265553339288175 -0.35632560315515105 -0.54254311875196026 178 146 121 0.18802358296681068 105 308 106 299 104 296
4031 -2.9260199339943753 -0.35605071341560962 -0.55471300195938777 180 148 123 0.35035399107157 107 1072 104 295 103 283
4030 -6.4770000322567824 -0.94422624758281304 -7.5646462494743112 163 153 151 0.37082253069081395 121 116 104 247 100 154
4029 -1.2943785542067279 -0.14343157515294436 -2.6094734401847672 197 158 126 0.5228311419295163 105 325 106 306 104 216
4028 -1.456321935982986 -0.21809011531101172 -3.428718986396579 189 154 122 0.273922383433026 105 196 106 979 104 211 102 122 101 160 94 164
4027 -2.9080423233035564 -0.38385177065283532 -0.53550642620548261 177 148 121 0.65850906658168995 106 1006 104 193 103 199 105 993 102 168 101 139 100 185
4026 -2.9278793140701702 -0.46069997635047999 -0.54963165803463865 180 148 122 0.24168773716907258 106 948 104 119 105 968
4025 -3.0807246985718932 -0.49140813296557073 -0.67848838831296676 179 149 123 0.32428517929120959 105 967 106 108 104 113 107 1000
4023 -2.0905655172830708 -0.55819782653566885 -5.8106697076125879 156 147 143 0.31015608272579215 106 75 107 100 104 90 103 86 101 53 95 41 97 41
4021 -3.5982227764533876 -0.64529852160512824 -1.101345015978048 133 123 118 0.35269789800726215 107 61 104 63 103 64
4020 -4.2842362521676121 -1.6347605966933541 -12.049881602125758 129 126 123 1.3581570478945111 133 895 104 16
4019 -2.9662140131102519 -0.61182900143199337 -0.58733868175185333 176 147 123 0.44031818327814481 105 920 106 891 104 4 103 1 100 9 99 5 97 26
4018 -2.9915231729105098 -0.64596368359489054 -3.530355299928146 210 208 206 2.6982979227232096 110 1754 105 1828
4017 -1.534922154817334 -0.11844880578551485 -2.1843571965255335 19 13 3 1.2722182471006909 106 1334 107 1458 100 868
4016 -2.1497987941224399 -0.6993250741407423 -5.8871919610484822 60 52 51 0.31112957880434183 107 1391 108 1023 105 941 104 827 103 1161 102 861 101 812 100 792 99 805 98 774 95 800 94 896 91 67 90 53 87 37 97 777
4015 -1.0974564468096941 -0.036043033578364678 -0.79576040198307652 146 128 113 0.87428996348921961 106 1801 105 1850 104 1668 103 1665 102 1535 101 1441 100 1199 98 278 96 338
4013 -3.8665098218140801 -0.60667192099107614 -1.3015597127758642 177 170 164 0.89420097228836892 106 1774 113 1837 105 1844 104 1700 103 1738 102 1740 101 1731 99 1729 98 1711 96 1791 95 1698 94 1768 93 1978 92 1978 91 1789 90 1513 87 1679 86 1616 85 1449 84 1530 83 1583 82 1535 81 1642 80 1719 79 1647 78 1691 77 1711 76 1840 75 2060 74 2081 73 2119 72 1888 71 2031 70 1800 69 1573 68 1419 67 1406 66 1525 65 1874 64 1860 63 1863 62 1762 61 2258 56 938 50 798 97 1705
4012 -1.4879109221418838 -0.084424823893954171 -0.74729187815233988 179 166 155 1.1907008214154713 106 1781 105 1833 104 1696
4011 -1.4441397314749802 -0.21046502909837769 -2.2307764347080092 169 154 139 1.2934675816539707 109 1959 105 1830 104 1688 100 1634 99 1711 98 1691 95 1669 94 1735 93 1948 92 1945 91 1746 89 1525 88 1518 87 1592 86 1560 80 1680 30 1017 15 773 14 807 13 759 9 684 3 559 2 530 1 502 97 1686
4010 -1.7379506427346973 -0.2791899525434286 -2.2531928524144118 164 154 144 1.1274657272799404 111 1721 105 1789 104 1615
4009 -3.3087276303426303 -0.54898975255441185 -0.84583138250284684 174 147 127 0.36901877990706838 105 1786 102 1640 101 1653 100 1580 99 1633 98 1567 96 1659 95 1588 94 1656 92 1772 91 1599 90 1319 89 1370 88 1368 87 1418 86 1380 84 1351 81 1470 80 1547 61 110 97 1561
4008 -3.3098014650322307 -0.5492894226827888 -0.84614771049230386 174 147 127 0.3611274715167555 105 1785 102 1639 101 1654 100 1579 99 1632 98 1566 96 1658 95 1587 94 1655 93 1769 92 1771 91 1598 90 1318 89 1369 88 1367 87 1417 86 1379 85 1287 84 1350 83 1411 82 1350 81 1469 80 1546 79 1474 78 1512 77 1436 76 1544 75 1699 74 1677 73 1735 72 1364 71 1403 70 1280 69 1129 68 1001 67 709 66 771 65 923 64 907 63 903 62 136 61 109 60 111 59 99 58 86 56 86 97 1560
4007 -3.3188522955151383 -0.6010497154066321 -0.84975021565626874 174 145 125 0.63995847459943789 108 1952 105 1780 104 1644 103 1681 101 1647 100 1578 99 1635 98 1555 96 1647 95 1576 94 1642 92 1860 91 1591 90 1316 89 1368 88 1366 87 1415 86 1369 85 1280 84 1334 83 1409 82 1349 81 1468 80 1540 79 1473 78 1510 75 1698 73 1734 72 1363 70 1279 69 1128 67 708 66 770 65 922 62 83 58 85
4005 -2.9814875346526333 -0.26969993569267769 -0.60992683808278558 125 96 68 0.51973637937139927 107 1871 108 1918 105 1713 104 1593 103 1613 102 1524 101 1528 100 1479 99 1529 98 1387 96 1509 95 1439 94 1515 93 1697 92 1671 91 1511 90 1259 89 1297 87 1329 86 1283 85 1222 84 1085 86 1097 83 1164 83 1339 82 1121 81 1185 81 1385 80 1276 79 1182 78 1246 77 1291 76 1332 75 1057 74 1025 73 1083 72 1005 71 1010 70 944 69 839 68 740 67 774 66 180 65 241 64 254 63 234 62 216 61 238 60 221 59 189 56 146 97 1391
4004 -6.6994054439165396 -0.63220482105730091 -3.9742638993908517 204 187 176 1.6188770428074761 107 1816 108 1868 109 1890 113 1768 114 1836 116 1429 123 1488 105 1706 110 1688 98 1506 96 1604 95 1525 85 1309 83 1506 90 1445 91 1724 92 1926 82 1453 80 1686 81 1602 82 1498 79 1605 76 1756 73 1924 71 1933 97 1496
4003 -2.6374031891927849 -0.35019101663927688 -3.0541026979959209 41 36 34 1.8294572550968229 109 1879 105 1696 108 1858 107 1730
4002 -19.740268785145883 -4.0582524149551409 -5.8984085754614011 0 0 0 2.3322113317314028 106 1655 135 1347
4001 -3.0471574015088829 -0.60916385046417576 -0.66358952525164061 161 131 103 0.81843824020249678 109 1859 105 1676 102 1492 101 1493 100 1438 99 1479 98 1336 96 1574 95 1379 94 1464 92 1621 91 1458 90 1219 89 1247 88 1243 87 1284 86 1239 85 1177 83 1293 82 1234 81 1339 80 1433 77 1425 76 1263 75 1438 74 1391 73 1452 72 1346 71 941 71 1387 65 894 63 881 97 1457
4000 -1.1338463684058144 -0.040711333246410172 -0.79242839035700596 203 184 165 0.29894205516785916 106 1747 105 1642 103 954 102 386
3999 -1.677237816716362 -0.10468586616720314 -1.2723697014886963 180 163 148 0.40019276164652734 106 1619 107 1824 108 1876 109 1898 105 1636 110 1722 104 1430 103 1442 102 1268 100 1178 98 941 96 292 95 313
3998 -1.3484387470891288 -0.068649215064652755 -2.3910899287803415 193 173 154 1.0245966550177492 106 1681 105 1635 104 1590
3995 -1.2047124129227391 -0.0503156976202516 -0.71695026059690503 191 176 158 1.5780093252252994 106 1687 105 1550 104 963 102 388 103 953
3994 -2.1487270191633989 -0.14920347270978618 -2.7518487568854657 37 32 29 1.2953020880954227 108 1805 105 1536 101 1429 99 1412
3993 -1.5151189068540785 -0.089430556272538902 -2.5006273466387161 186 167 147 0.45384506285477233 106 1510 107 1753 105 1530 104 1422 102 1429 100 1385 96 1307 94 1028 97 1210
3992 -4.3896301475550041 -0.43607727518676781 -1.6639127063399861 121 112 103 0.3592711994085756 107 1644 108 1677 109 1643 105 1523 104 1418 103 1432 101 1427 100 1378 99 1235 96 1298 95 1241 93 1495 92 1449 91 1327 90 1126 89 855 88 814 86 777 84 1084 82 1099 77 940 74 1023 73 1082 72 1004 71 177 70 154 68 163
3991 -3.0563581645513684 -0.4397212076837192 -0.6465471759063387 178 165 155 0.42662632801577538 106 1465 107 1725 105 1496
3990 -3.0448491972648619 -0.59203178751463947 -0.64194091728513436 129 105 85 0.30640704945667457 107 1700 108 1756 105 1458 104 1357 103 1156 101 802 99 810 98 782 94 902 88 42 97 783
3989 -0.95895260327435339 -0.010032659074342927 -0.99455895965917385 168 154 141 0.17223681915209255 106 1630 105 1364 104 450
3988 -1.3685409533375927 -0.066890211044127554 -0.71422648756179363 213 196 181 0.66762289647636242 106 1624 105 1356 104 957 103 946 101 328 99 287 98 275 97 338
3986 -3.4296524245206852 -0.33590747540128618 -0.92994754740379659 111 123 129 1.4248532122211921 107 1457 105 1328 104 1238 103 918 101 907 97 245 105 1045
3985 -1.4605638506076297 -0.16903667437521147 -2.7028147907348141 185 149 123 0.43425256504311566 107 1436 105 1311 104 886 101 859 99 123 95 236
3984 -1.319970626542663 -0.13327590043882251 -2.5700249103285531 186 150 123 0.52293216644149187 107 1631 105 1309 104 1225 103 1227 102 1248 101 1217 100 1160 99 889 98 880 96 932 95 898 94 999 93 296 92 269 97 889
3983 -1.3336108113347747 -0.14692039620508621 -2.5893233523943628 70 45 22 0.66719203353447087 107 1434 105 1308 103 881 97 213
3982 -1.2683705653039083 -0.1094891233117746 -2.5029448850279845 159 126 99 0.31573143006278725 106 1330 105 1307 104 1224 102 946 98 165
3981 -2.0805297982102648 -0.50285839260823162 -5.7130627372221827 145 139 134 0.5739981642596097 106 1286 107 1404 108 1458 105 1263 104 1184 103 1382 102 1386 101 1372 100 1320
3980 -3.0061820096363818 -0.61690734553459436 -0.60740723525780715 173 143 121 1.1542304990290539 106 890 107 1384 105 1259 104 1169 103 805 102 853 101 803 99 4 98 781 96 805 94 31 92 56 84 15 97 23
3979 -1.0901364743875226 -0.032935292470929821 -0.82410050632956189 193 176 158 0.34610045950341678 106 1374 105 1105 104 443
3978 -1.0549551466528242 -0.025006312844634285 -0.98283235164051608 159 146 133 0.2736776907185301 106 1364 105 1098 104 442
3977 -1.0549551466528242 -0.025006312844634285 -0.98283235164051608 159 146 133 0.2736776907185301 106 1365 105 1097 104 441
3976 -1.0810983144742321 -0.023239958327553541 -1.1348655251241402 174 160 147 0.46183223275357244 106 1522 105 1086 104 432 103 410
3975 -1.1220772809606909 -0.028600408175577727 -1.1180873211657223 156 142 125 0.34421675161078591 106 1354 105 1083 104 434 103 402
3973 -1.434766689784132 -0.1003870621885186 -2.2899379305308676 80 61 51 0.26796168980180018 107 1112 96 283
3972 -1.21359130147328 -0.06984773709213446 -2.352551637480742 88 54 27 0.3884487236556442 106 1074 105 1056 104 388 103 377 102 345
3971 -1.21359130147328 -0.06984773709213446 -2.352551637480742 88 54 27 0.3884487236556442 106 1073 105 1055 104 387 103 376 102 346
3970 -1.2600439756858524 -0.097711873469538371 -2.4708637635844095 118 87 66 0.3544786104178777 106 1055 105 1054 104 334 102 290 100 212 98 166
3969 -1.2542102424912787 -0.11623860415233719 -2.5257613454131769 178 146 119 0.35778918069352822 106 1310 105 1028 104 912
3968 -1.5112650711092681 -0.20993404589267245 -2.1481829954721627 114 87 55 0.42056406682715508 108 1481 105 1006 104 868 101 174 100 152
3967 -2.0468829720688673 -0.49065780081223992 -5.7603168183335889 144 133 126 0.64588731369322427 106 1284 107 1403 108 1457 105 979 104 846 103 833 102 869 101 821 100 45 90 80 89 127
3966 -3.0807246985718884 -0.49140813296556979 -0.67848838831296732 181 149 123 0.32428517929113326 106 107 107 1001 105 966 104 112
3965 -2.1774228855854219 -0.65345135402772947 -5.8911194767177166 147 142 137 0.29299426064595818 106 934 107 974 108 1024 105 943 109 1388 109 993 104 829 103 818 102 863 101 813 100 26 99 28 98 34 96 32 95 42 94 56 93 66 97 40
3964 -2.1499401898142043 -0.69936302446589027 -5.887423009457649 60 52 51 0.30031126151122722 107 1390 108 1022 109 992 105 942 104 828 103 1162 102 862 101 811 100 791 99 804 98 773 95 799 94 895 91 66 90 52 89 47 87 38 97 776
3963 -1.2615918735756657 -0.046031529739097125 -1.2848435873783093 180 161 146 0.69229467058199334 106 1095 105 464 103 398
3962 -2.5290336110055458 -0.20135732816683849 -0.74990154057388425 150 132 114 0.21346590491085235 110 1353 105 455 104 399 103 387 102 357
3961 -2.5292054270573567 -0.20137164708650213 -0.74978433794388744 150 132 114 0.26696714428656176 106 445 110 1354 105 454 104 400 103 388 102 358
3960 -1.6480016063146938 -0.11075481712888925 -2.4315945135009147 204 203 193 0.49538404511942524 106 405 111 1448 107 1116 108 1196 105 423
3959 -1.6241670080643558 -0.12160972299646716 -2.6451017311862657 46 28 9 1.0772803162929334 107 404 110 406 105 421
3958 -1.5482955575242703 -0.10650524064385125 -2.569070531708205 81 61 42 0.23579997801744407 109 1129 105 419 103 333 102 298 100 269
3957 -1.5475592295745817 -0.10636384582038995 -2.5670047282540125 81 61 42 0.21253966207474792 108 1189 105 418 103 332 102 297 101 261 100 268 99 244
3956 -1.2352998364436389 -0.098982693195649799 -2.4509541762454181 202 171 140 0.14167712928132647 106 1054 105 414 103 327
3955 -3.0007857524575403 -0.30435915719227657 -0.59065666492346003 171 141 118 0.19933817666326806 107 1106 105 400 104 376
3954 -3.0513270752755695 -0.32455346363081861 -0.62400505343707424 177 147 123 0.073055978583662876 106 373 107 385 105 396
3953 -3.2229958662500415 -0.32734421255521695 -0.70106091951618354 179 147 121 0.30409102231760649 106 362 107 373 105 388
3952 -3.0662305797896416 -0.34069606815127379 -0.66808860479907284 182 150 125 0.079630213692339677 106 364 107 377 105 387
